ply
format ascii 1.0
comment VTK generated PLY File
obj_info vtkPolyData points and polygons: vtk4.0
element vertex 3043
property float x
property float y
property float z
element face 0
property list uchar int vertex_indices
end_header
42.9943 32.9956 199.974 
43.9947 32.996 199.976 
44.9954 32.9966 199.979 
45.9962 32.9973 199.984 
46.9973 32.9981 199.989 
47.9986 32.999 199.994 
48.9999 33 200 
50.0014 33.0009 200.006 
51.0029 33.0019 200.011 
52.0044 33.0028 200.017 
53.0058 33.0036 200.022 
54.0071 33.0044 200.026 
55.0083 33.005 200.03 
56.0093 33.0055 200.033 
57.01 33.0058 200.035 
58.0105 33.006 200.036 
59.0107 33.006 200.036 
60.0106 33.0058 200.035 
61.0101 33.0054 200.033 
62.0092 33.0049 200.03 
63.0081 33.0042 200.026 
64.0067 33.0034 200.021 
65.005 33.0025 200.015 
66.0032 33.0016 200.01 
67.0014 33.0007 200.004 
67.9997 32.9998 199.999 
68.9983 32.9992 199.995 
69.9974 32.9988 199.993 
70.9972 32.9987 199.992 
71.998 32.9991 199.994 
73 33 200 
74 33 200 
75 33 200 
76 33 200 
77 33 200 
78 33 200 
79 33 200 
80 33 200 
81 33 200 
82 33 200 
83 33 200 
84 33 200 
85 33 200 
86 33 200 
87 33 200 
88 33 200 
89 33 200 
90 33 200 
91 33 200 
92 33 200 
93 33 200 
94 33 200 
95 33 200 
96 33 200 
97 33 200 
98 33 200 
99 33 200 
0 34 200 
1 34 200 
2 34 200 
3 34 200 
4 34 200 
5 34 200 
6 34 200 
7 34 200 
8 34 200 
9 34 200 
10 34 200 
11 34 200 
12 34 200 
13 34 200 
14 34 200 
15 34 200 
16 34 200 
17 34 200 
18 34 200 
19 34 200 
20 34 200 
21 34 200 
22 34 200 
23 34 200 
24 34 200 
25 34 200 
26 34 200 
27 34 200 
28 34 200 
29 34 200 
30 34 200 
31 34 200 
32 34 200 
33 34 200 
34 34 200 
35 34 200 
36 34 200 
37 34 200 
37.998 33.9982 199.989 
38.9966 33.997 199.982 
39.9957 33.9964 199.979 
40.9954 33.9962 199.977 
41.9955 33.9963 199.978 
42.9959 33.9968 199.981 
43.9967 33.9975 199.985 
44.9979 33.9984 199.99 
45.9992 33.9994 199.997 
47.0008 34.0006 200.003 
48.0026 34.0018 200.011 
49.0045 34.0031 200.018 
50.0065 34.0044 200.026 
51.0085 34.0057 200.033 
52.0105 34.0069 200.04 
53.0125 34.008 200.047 
54.0143 34.009 200.053 
55.016 34.0099 200.058 
56.0174 34.0106 200.062 
57.0186 34.0111 200.065 
58.0194 34.0114 200.067 
59.0199 34.0115 200.067 
60.0199 34.0113 200.066 
61.0195 34.0109 200.064 
62.0186 34.0102 200.06 
63.0173 34.0093 200.055 
64.0155 34.0083 200.049 
65.0134 34.007 200.041 
66.0109 34.0056 200.033 
67.0083 34.0042 200.025 
68.0057 34.0028 200.017 
69.0032 34.0016 200.009 
70.0011 34.0005 200.003 
70.9996 33.9998 199.999 
71.9992 33.9996 199.998 
73 34 200 
74 34 200 
75 34 200 
76 34 200 
77 34 200 
78 34 200 
79 34 200 
80 34 200 
81 34 200 
82 34 200 
83 34 200 
84 34 200 
85 34 200 
86 34 200 
87 34 200 
88 34 200 
89 34 200 
90 34 200 
91 34 200 
92 34 200 
93 34 200 
94 34 200 
95 34 200 
96 34 200 
97 34 200 
98 34 200 
99 34 200 
0 35 200 
1 35 200 
2 35 200 
3 35 200 
4 35 200 
5 35 200 
6 35 200 
7 35 200 
8 35 200 
9 35 200 
10 35 200 
11 35 200 
12 35 200 
13 35 200 
14 35 200 
15 35 200 
16 35 200 
17 35 200 
18 35 200 
19 35 200 
20 35 200 
21 35 200 
22 35 200 
23 35 200 
24 35 200 
25 35 200 
26 35 200 
27 35 200 
28 35 200 
29 35 200 
30 35 200 
31 35 200 
32 35 200 
33 35 200 
34 35 200 
35 35 200 
36 35 200 
37 35 200 
37.9983 34.9984 199.991 
38.9972 34.9975 199.986 
39.9967 34.9971 199.984 
40.9967 34.9972 199.984 
41.9972 34.9977 199.987 
42.9982 34.9985 199.992 
43.9995 34.9996 199.998 
45.0011 35.0009 200.005 
46.003 35.0023 200.013 
47.0052 35.0039 200.022 
48.0075 35.0055 200.031 
49.01 35.0072 200.041 
50.0126 35.0088 200.051 
51.0153 35.0105 200.06 
52.0179 35.0121 200.069 
53.0205 35.0135 200.077 
54.0229 35.0149 200.085 
55.0252 35.016 200.092 
56.0271 35.017 200.097 
57.0288 35.0177 200.101 
58.03 35.0181 200.104 
59.0308 35.0183 200.105 
60.0311 35.0181 200.104 
61.0308 35.0177 200.101 
62.0299 35.0169 200.096 
63.0283 35.0157 200.09 
64.0262 35.0143 200.082 
65.0235 35.0126 200.072 
66.0203 35.0108 200.062 
67.0167 35.0087 200.05 
68.013 35.0067 200.038 
69.0092 35.0047 200.027 
70.0057 35.0029 200.016 
71.0028 35.0014 200.008 
72.0007 35.0004 200.002 
73 35 200 
74 35 200 
75 35 200 
76 35 200 
77 35 200 
78 35 200 
79 35 200 
80 35 200 
81 35 200 
82 35 200 
83 35 200 
84 35 200 
85 35 200 
86 35 200 
87 35 200 
88 35 200 
89 35 200 
90 35 200 
91 35 200 
92 35 200 
93 35 200 
94 35 200 
95 35 200 
96 35 200 
97 35 200 
98 35 200 
99 35 200 
0 36 200 
1 36 200 
2 36 200 
3 36 200 
4 36 200 
5 36 200 
6 36 200 
7 36 200 
8 36 200 
9 36 200 
10 36 200 
11 36 200 
12 36 200 
13 36 200 
14 36 200 
15 36 200 
16 36 200 
17 36 200 
18 36 200 
19 36 200 
20 36 200 
21 36 200 
22 36 200 
23 36 200 
24 36 200 
25 36 200 
26 36 200 
27 36 200 
28 36 200 
29 36 200 
30 36 200 
31 36 200 
32 36 200 
33 36 200 
34 36 200 
35 36 200 
36 36 200 
37 36 200 
37.9987 35.9987 199.993 
38.998 35.9982 199.99 
39.998 35.9982 199.99 
40.9985 35.9987 199.993 
41.9995 35.9996 199.998 
43.001 36.0009 200.005 
44.0029 36.0024 200.013 
45.0051 36.0041 200.023 
46.0077 36.006 200.033 
47.0105 36.008 200.045 
48.0135 36.0101 200.056 
49.0166 36.0122 200.068 
50.0199 36.0144 200.08 
51.0233 36.0164 200.091 
52.0266 36.0184 200.102 
53.0299 36.0203 200.113 
54.033 36.022 200.122 
55.0359 36.0235 200.13 
56.0385 36.0247 200.137 
57.0407 36.0257 200.143 
58.0424 36.0263 200.146 
59.0436 36.0266 200.148 
60.0441 36.0265 200.147 
61.044 36.026 200.144 
62.0431 36.025 200.139 
63.0413 36.0236 200.131 
64.0388 36.0218 200.121 
65.0355 36.0196 200.109 
66.0314 36.0172 200.095 
67.0268 36.0144 200.08 
68.0217 36.0115 200.064 
69.0165 36.0086 200.048 
70.0113 36.0058 200.032 
71.0066 36.0033 200.019 
72.0027 36.0013 200.007 
73 36 200 
74 36 200 
75 36 200 
76 36 200 
77 36 200 
78 36 200 
79 36 200 
80 36 200 
81 36 200 
82 36 200 
83 36 200 
84 36 200 
85 36 200 
86 36 200 
87 36 200 
88 36 200 
89 36 200 
90 36 200 
91 36 200 
92 36 200 
93 36 200 
94 36 200 
95 36 200 
96 36 200 
97 36 200 
98 36 200 
99 36 200 
0 37 200 
1 37 200 
2 37 200 
3 37 200 
4 37 200 
5 37 200 
6 37 200 
7 37 200 
8 37 200 
9 37 200 
10 37 200 
11 37 200 
12 37 200 
13 37 200 
14 37 200 
15 37 200 
16 37 200 
17 37 200 
18 37 200 
19 37 200 
20 37 200 
21 37 200 
22 37 200 
23 37 200 
24 37 200 
25 37 200 
26 37 200 
27 37 200 
28 37 200 
29 37 200 
30 37 200 
31 37 200 
32 37 200 
33 37 200 
34 37 200 
35 37 200 
36 37 200 
37 37 200 
37.9992 36.9992 199.996 
38.9991 36.9991 199.995 
39.9996 36.9996 199.998 
41.0007 37.0007 200.004 
42.0024 37.0021 200.011 
43.0045 37.0039 200.021 
44.007 37.0059 200.032 
45.0099 37.0082 200.044 
46.0132 37.0106 200.057 
47.0167 37.0131 200.071 
48.0204 37.0158 200.085 
49.0244 37.0184 200.099 
50.0284 37.021 200.114 
51.0325 37.0236 200.128 
52.0366 37.0261 200.141 
53.0407 37.0284 200.154 
54.0446 37.0305 200.165 
55.0482 37.0324 200.175 
56.0515 37.034 200.184 
57.0544 37.0353 200.191 
58.0567 37.0362 200.195 
59.0584 37.0366 200.198 
60.0593 37.0366 200.198 
61.0593 37.036 200.195 
62.0584 37.0349 200.189 
63.0565 37.0332 200.18 
64.0536 37.031 200.167 
65.0496 37.0282 200.153 
66.0446 37.025 200.135 
67.0388 37.0214 200.116 
68.0322 37.0175 200.095 
69.0252 37.0135 200.073 
70.0181 37.0096 200.052 
71.0112 37.0059 200.032 
72.005 37.0026 200.014 
73 37 200 
74 37 200 
75 37 200 
76 37 200 
77 37 200 
78 37 200 
79 37 200 
80 37 200 
81 37 200 
82 37 200 
83 37 200 
84 37 200 
85 37 200 
86 37 200 
87 37 200 
88 37 200 
89 37 200 
90 37 200 
91 37 200 
92 37 200 
93 37 200 
94 37 200 
95 37 200 
96 37 200 
97 37 200 
98 37 200 
99 37 200 
0 38 200 
1 38 200 
2 38 200 
3 38 200 
4 38 200 
5 38 200 
6 38 200 
7 38 200 
8 38 200 
9 38 200 
10 38 200 
11 38 200 
12 38 200 
13 38 200 
14 38 200 
15 38 200 
16 38 200 
17 38 200 
18 38 200 
19 38 200 
20 38 200 
21 38 200 
22 38 200 
23 38 200 
24 38 200 
25 38 200 
26 38 200 
27 38 200 
28 38 200 
29 38 200 
30 38 200 
31 38 200 
32 38 200 
33 38 200 
34 38 200 
35 38 200 
36 38 200 
37 38 200 
37.9998 37.9998 199.999 
39.0004 38.0003 200.002 
40.0016 38.0015 200.008 
41.0034 38.0031 200.016 
42.0057 38.0052 200.027 
43.0086 38.0076 200.04 
44.0119 38.0103 200.054 
45.0155 38.0131 200.069 
46.0196 38.0162 200.085 
47.0239 38.0193 200.102 
48.0284 38.0225 200.119 
49.0332 38.0257 200.135 
50.0381 38.029 200.152 
51.0431 38.0321 200.169 
52.048 38.0351 200.185 
53.053 38.038 200.2 
54.0577 38.0406 200.214 
55.0622 38.043 200.226 
56.0663 38.045 200.237 
57.07 38.0466 200.245 
58.073 38.0478 200.252 
59.0753 38.0485 200.255 
60.0766 38.0485 200.255 
61.077 38.048 200.252 
62.0762 38.0467 200.246 
63.0742 38.0447 200.235 
64.0708 38.042 200.221 
65.0661 38.0386 200.203 
66.06 38.0346 200.182 
67.0528 38.03 200.158 
68.0446 38.0249 200.131 
69.0356 38.0196 200.103 
70.0262 38.0142 200.075 
71.0168 38.009 200.047 
72.0079 38.0042 200.022 
73 38 200 
74 38 200 
75 38 200 
76 38 200 
77 38 200 
78 38 200 
79 38 200 
80 38 200 
81 38 200 
82 38 200 
83 38 200 
84 38 200 
85 38 200 
86 38 200 
87 38 200 
88 38 200 
89 38 200 
90 38 200 
91 38 200 
92 38 200 
93 38 200 
94 38 200 
95 38 200 
96 38 200 
97 38 200 
98 38 200 
99 38 200 
0 39 200 
1 39 200 
2 39 200 
3 39 200 
4 39 200 
5 39 200 
6 39 200 
7 39 200 
8 39 200 
9 39 200 
10 39 200 
11 39 200 
12 39 200 
13 39 200 
14 39 200 
15 39 200 
16 39 200 
17 39 200 
18 39 200 
19 39 200 
20 39 200 
21 39 200 
22 39 200 
23 39 200 
24 39 200 
25 39 200 
26 39 200 
27 39 200 
28 39 200 
29 39 200 
30 39 200 
31 39 200 
32 39 200 
33 39 200 
34 39 200 
35 39 200 
36 39 200 
37 39 200 
38.0005 39.0006 200.003 
39.0019 39.0019 200.009 
40.0038 39.0037 200.019 
41.0065 39.0061 200.031 
42.0096 39.0089 200.046 
43.0133 39.0121 200.062 
44.0174 39.0154 200.079 
45.0219 39.019 200.097 
46.0268 39.0227 200.117 
47.032 39.0266 200.136 
48.0374 39.0304 200.156 
49.0431 39.0343 200.176 
50.0489 39.0382 200.196 
51.0549 39.042 200.215 
52.0608 39.0456 200.234 
53.0667 39.0491 200.252 
54.0724 39.0523 200.268 
55.0779 39.0552 200.283 
56.0829 39.0578 200.296 
57.0875 39.0599 200.307 
58.0914 39.0614 200.315 
59.0944 39.0624 200.32 
60.0964 39.0626 200.321 
61.0971 39.0621 200.318 
62.0965 39.0607 200.311 
63.0944 39.0585 200.3 
64.0907 39.0552 200.283 
65.0852 39.0511 200.262 
66.078 39.0461 200.236 
67.0692 39.0403 200.207 
68.059 39.0338 200.173 
69.0476 39.0269 200.138 
70.0356 39.0198 200.102 
71.0232 39.0128 200.065 
72.0112 39.0061 200.031 
73 39 200 
74 39 200 
75 39 200 
76 39 200 
77 39 200 
78 39 200 
79 39 200 
80 39 200 
81 39 200 
82 39 200 
83 39 200 
84 39 200 
85 39 200 
86 39 200 
87 39 200 
88 39 200 
89 39 200 
90 39 200 
91 39 200 
92 39 200 
93 39 200 
94 39 200 
95 39 200 
96 39 200 
97 39 200 
98 39 200 
99 39 200 
0 40 200 
1 40 200 
2 40 200 
3 40 200 
4 40 200 
5 40 200 
6 40 200 
7 40 200 
8 40 200 
9 40 200 
10 40 200 
11 40 200 
12 40 200 
13 40 200 
14 40 200 
15 40 200 
16 40 200 
17 40 200 
18 40 200 
19 40 200 
20 40 200 
21 40 200 
22 40 200 
23 40 200 
24 40 200 
25 40 200 
26 40 200 
27 40 200 
28 40 200 
29 40 200 
30 40 200 
31 40 200 
32 40 200 
33 40 200 
34 40 200 
35 40 200 
36 40 200 
37 40 200 
38.0014 40.0015 200.007 
39.0036 40.0037 200.018 
40.0065 40.0065 200.032 
41.01 40.0097 200.049 
42.0141 40.0134 200.067 
43.0186 40.0173 200.087 
44.0237 40.0215 200.108 
45.0291 40.0259 200.129 
46.0349 40.0303 200.152 
47.041 40.0349 200.175 
48.0475 40.0396 200.198 
49.0541 40.0442 200.221 
50.061 40.0488 200.244 
51.0679 40.0533 200.266 
52.0749 40.0576 200.288 
53.0819 40.0618 200.309 
54.0887 40.0657 200.329 
55.0953 40.0693 200.346 
56.1014 40.0725 200.362 
57.107 40.0751 200.376 
58.1119 40.0772 200.386 
59.1158 40.0785 200.393 
60.1186 40.0791 200.395 
61.12 40.0787 200.393 
62.1197 40.0772 200.386 
63.1176 40.0747 200.373 
64.1135 40.0709 200.355 
65.1072 40.066 200.33 
66.0988 40.0599 200.299 
67.0882 40.0527 200.263 
68.0758 40.0446 200.223 
69.0617 40.0358 200.179 
70.0466 40.0266 200.133 
71.0308 40.0173 200.087 
72.015 40.0084 200.042 
73 40 200 
74 40 200 
75 40 200 
76 40 200 
77 40 200 
78 40 200 
79 40 200 
80 40 200 
81 40 200 
82 40 200 
83 40 200 
84 40 200 
85 40 200 
86 40 200 
87 40 200 
88 40 200 
89 40 200 
90 40 200 
91 40 200 
92 40 200 
93 40 200 
94 40 200 
95 40 200 
96 40 200 
97 40 200 
98 40 200 
99 40 200 
0 41 200 
1 41 200 
2 41 200 
3 41 200 
4 41 200 
5 41 200 
6 41 200 
7 41 200 
8 41 200 
9 41 200 
10 41 200 
11 41 200 
12 41 200 
13 41 200 
14 41 200 
15 41 200 
16 41 200 
17 41 200 
18 41 200 
19 41 200 
20 41 200 
21 41 200 
22 41 200 
23 41 200 
24 41 200 
25 41 200 
26 41 200 
27 41 200 
28 41 200 
29 41 200 
30 41 200 
31 41 200 
32 41 200 
33 41 200 
34 41 200 
35 41 200 
36 41 200 
37 41 200 
38.0024 41.0026 200.013 
39.0056 41.0059 200.029 
40.0095 41.0097 200.047 
41.014 41.014 200.068 
42.0191 41.0187 200.091 
43.0247 41.0235 200.115 
44.0307 41.0286 200.139 
45.0371 41.0338 200.165 
46.0439 41.0391 200.191 
47.0511 41.0446 200.217 
48.0585 41.05 200.244 
49.0663 41.0554 200.27 
50.0742 41.0608 200.297 
51.0823 41.0662 200.323 
52.0905 41.0713 200.348 
53.0986 41.0763 200.372 
54.1067 41.081 200.395 
55.1145 41.0854 200.416 
56.1219 41.0893 200.435 
57.1288 41.0926 200.452 
58.1348 41.0953 200.465 
59.1399 41.0972 200.474 
60.1436 41.0981 200.479 
61.1458 41.098 200.478 
62.1461 41.0966 200.471 
63.1442 41.0938 200.458 
64.1398 41.0896 200.437 
65.1328 41.0837 200.408 
66.123 41.0764 200.373 
67.1104 41.0676 200.33 
68.0954 41.0575 200.281 
69.0782 41.0465 200.227 
70.0594 41.0348 200.17 
71.0396 41.0229 200.112 
72.0196 41.0111 200.054 
73 41 200 
74 41 200 
75 41 200 
76 41 200 
77 41 200 
78 41 200 
79 41 200 
80 41 200 
81 41 200 
82 41 200 
83 41 200 
84 41 200 
85 41 200 
86 41 200 
87 41 200 
88 41 200 
89 41 200 
90 41 200 
91 41 200 
92 41 200 
93 41 200 
94 41 200 
95 41 200 
96 41 200 
97 41 200 
98 41 200 
99 41 200 
0 42 200 
1 42 200 
2 42 200 
3 42 200 
4 42 200 
5 42 200 
6 42 200 
7 42 200 
8 42 200 
9 42 200 
10 42 200 
11 42 200 
12 42 200 
13 42 200 
14 42 200 
15 42 200 
16 42 200 
17 42 200 
18 42 200 
19 42 200 
20 42 200 
21 42 200 
22 42 200 
23 42 200 
24 42 200 
25 42 200 
26 42 200 
27 42 200 
28 42 200 
29 42 200 
30 42 200 
31 42 200 
32 42 200 
33 42 200 
34 42 200 
35 42 200 
36 42 200 
37 42 200 
38.0035 42.0039 200.019 
39.0079 42.0085 200.041 
40.013 42.0136 200.065 
41.0186 42.0191 200.091 
42.0248 42.0248 200.118 
43.0314 42.0307 200.146 
44.0385 42.0368 200.175 
45.046 42.0429 200.204 
46.0539 42.0492 200.234 
47.0621 42.0555 200.264 
48.0707 42.0618 200.294 
49.0795 42.0682 200.325 
50.0887 42.0745 200.355 
51.098 42.0807 200.384 
52.1074 42.0868 200.413 
53.1169 42.0926 200.441 
54.1263 42.0983 200.468 
55.1355 42.1035 200.493 
56.1444 42.1083 200.516 
57.1527 42.1125 200.536 
58.1602 42.116 200.552 
59.1666 42.1186 200.565 
60.1716 42.1201 200.572 
61.1748 42.1204 200.573 
62.1759 42.1192 200.568 
63.1745 42.1163 200.554 
64.17 42.1116 200.531 
65.1623 42.1048 200.499 
66.151 42.0961 200.458 
67.1363 42.0854 200.407 
68.1183 42.0731 200.348 
69.0975 42.0593 200.283 
70.0745 42.0447 200.213 
71.05 42.0296 200.141 
72.0249 42.0145 200.069 
73 42 200 
74 42 200 
75 42 200 
76 42 200 
77 42 200 
78 42 200 
79 42 200 
80 42 200 
81 42 200 
82 42 200 
83 42 200 
84 42 200 
85 42 200 
86 42 200 
87 42 200 
88 42 200 
89 42 200 
90 42 200 
91 42 200 
92 42 200 
93 42 200 
94 42 200 
95 42 200 
96 42 200 
97 42 200 
98 42 200 
99 42 200 
0 43 200 
1 43 200 
2 43 200 
3 43 200 
4 43 200 
5 43 200 
6 43 200 
7 43 200 
8 43 200 
9 43 200 
10 43 200 
11 43 200 
12 43 200 
13 43 200 
14 43 200 
15 43 200 
16 43 200 
17 43 200 
18 43 200 
19 43 200 
20 43 200 
21 43 200 
22 43 200 
23 43 200 
24 43 200 
25 43 200 
26 43 200 
27 43 200 
28 43 200 
29 43 200 
30 43 200 
31 43 200 
32 43 200 
33 43 200 
34 43 200 
35 43 200 
36 43 200 
37 43 200 
38.0049 43.0056 200.026 
39.0106 43.0117 200.054 
40.017 43.0182 200.085 
41.0239 43.025 200.116 
42.0312 43.0319 200.149 
43.039 43.039 200.181 
44.0472 43.0461 200.214 
45.0557 43.0533 200.248 
46.0647 43.0605 200.281 
47.0741 43.0678 200.315 
48.0838 43.0751 200.349 
49.0939 43.0824 200.383 
50.1043 43.0897 200.417 
51.1149 43.0969 200.451 
52.1257 43.104 200.484 
53.1367 43.1109 200.516 
54.1476 43.1175 200.547 
55.1584 43.1238 200.576 
56.1688 43.1297 200.603 
57.1788 43.1349 200.627 
58.188 43.1394 200.648 
59.1961 43.1429 200.665 
60.2027 43.1453 200.676 
61.2074 43.1462 200.68 
62.2097 43.1454 200.676 
63.209 43.1426 200.663 
64.2047 43.1375 200.64 
65.1964 43.1299 200.604 
66.1837 43.1197 200.557 
67.1665 43.1068 200.497 
68.1451 43.0917 200.427 
69.12 43.0748 200.348 
70.092 43.0565 200.263 
71.062 43.0376 200.175 
72.0311 43.0185 200.086 
73 43 200 
74 43 200 
75 43 200 
76 43 200 
77 43 200 
78 43 200 
79 43 200 
80 43 200 
81 43 200 
82 43 200 
83 43 200 
84 43 200 
85 43 200 
86 43 200 
87 43 200 
88 43 200 
89 43 200 
90 43 200 
91 43 200 
92 43 200 
93 43 200 
94 43 200 
95 43 200 
96 43 200 
97 43 200 
98 43 200 
99 43 200 
0 44 200 
1 44 200 
2 44 200 
3 44 200 
4 44 200 
5 44 200 
6 44 200 
7 44 200 
8 44 200 
9 44 200 
10 44 200 
11 44 200 
12 44 200 
13 44 200 
14 44 200 
15 44 200 
16 44 200 
17 44 200 
18 44 200 
19 44 200 
20 44 200 
21 44 200 
22 44 200 
23 44 200 
24 44 200 
25 44 200 
26 44 200 
27 44 200 
28 44 200 
29 44 200 
30 44 200 
31 44 200 
32 44 200 
33 44 200 
34 44 200 
35 44 200 
36 44 200 
37 44 200 
38.0065 44.0076 200.034 
39.0138 44.0156 200.071 
40.0216 44.0237 200.108 
41.0298 44.032 200.145 
42.0384 44.0402 200.183 
43.0473 44.0484 200.22 
44.0567 44.0567 200.258 
45.0664 44.0649 200.295 
46.0765 44.0732 200.333 
47.0871 44.0815 200.37 
48.098 44.0898 200.408 
49.1093 44.0982 200.446 
50.121 44.1065 200.484 
51.1331 44.1148 200.522 
52.1454 44.123 200.559 
53.1579 44.1311 200.596 
54.1704 44.1389 200.631 
55.183 44.1464 200.665 
56.1953 44.1534 200.697 
57.2072 44.1599 200.727 
58.2183 44.1656 200.753 
59.2285 44.1704 200.774 
60.2371 44.1739 200.79 
61.2437 44.1758 200.799 
62.2477 44.1758 200.799 
63.2482 44.1734 200.788 
64.2446 44.1682 200.764 
65.236 44.1597 200.726 
66.2218 44.1479 200.672 
67.2018 44.1325 200.602 
68.1763 44.1141 200.519 
69.1462 44.0932 200.424 
70.1124 44.0706 200.321 
71.076 44.0471 200.214 
72.0383 44.0234 200.106 
73 44 200 
74 44 200 
75 44 200 
76 44 200 
77 44 200 
78 44 200 
79 44 200 
80 44 200 
81 44 200 
82 44 200 
83 44 200 
84 44 200 
85 44 200 
86 44 200 
87 44 200 
88 44 200 
89 44 200 
90 44 200 
91 44 200 
92 44 200 
93 44 200 
94 44 200 
95 44 200 
96 44 200 
97 44 200 
98 44 200 
99 44 200 
0 45 200 
1 45 200 
2 45 200 
3 45 200 
4 45 200 
5 45 200 
6 45 200 
7 45 200 
8 45 200 
9 45 200 
10 45 200 
11 45 200 
12 45 200 
13 45 200 
14 45 200 
15 45 200 
16 45 200 
17 45 200 
18 45 200 
19 45 200 
20 45 200 
21 45 200 
22 45 200 
23 45 200 
24 45 200 
25 45 200 
26 45 200 
27 45 200 
28 45 200 
29 45 200 
30 45 200 
31 45 200 
32 45 200 
33 45 200 
34 45 200 
35 45 200 
36 45 200 
37 45 200 
38.0084 45.0099 200.044 
39.0173 45.02 200.089 
40.0267 45.03 200.133 
41.0363 45.0398 200.177 
42.0461 45.0494 200.22 
43.0563 45.0589 200.262 
44.0668 45.0683 200.303 
45.0776 45.0776 200.345 
46.0889 45.087 200.387 
47.1006 45.0963 200.428 
48.1128 45.1058 200.47 
49.1255 45.1152 200.512 
50.1385 45.1247 200.554 
51.152 45.1342 200.596 
52.1659 45.1436 200.638 
53.1801 45.1529 200.68 
54.1944 45.162 200.72 
55.2089 45.1709 200.76 
56.2232 45.1794 200.797 
57.2373 45.1874 200.833 
58.2508 45.1946 200.865 
59.2634 45.2009 200.893 
60.2745 45.2059 200.915 
61.2837 45.2093 200.93 
62.2899 45.2104 200.935 
63.2925 45.2089 200.928 
64.2901 45.204 200.907 
65.2817 45.195 200.867 
66.2661 45.1814 200.806 
67.2429 45.1632 200.725 
68.2125 45.1406 200.625 
69.1762 45.1149 200.511 
70.1353 45.087 200.387 
71.0915 45.058 200.258 
72.0461 45.0288 200.128 
73 45 200 
74 45 200 
75 45 200 
76 45 200 
77 45 200 
78 45 200 
79 45 200 
80 45 200 
81 45 200 
82 45 200 
83 45 200 
84 45 200 
85 45 200 
86 45 200 
87 45 200 
88 45 200 
89 45 200 
90 45 200 
91 45 200 
92 45 200 
93 45 200 
94 45 200 
95 45 200 
96 45 200 
97 45 200 
98 45 200 
99 45 200 
0 46 200 
1 46 200 
2 46 200 
3 46 200 
4 46 200 
5 46 200 
6 46 200 
7 46 200 
8 46 200 
9 46 200 
10 46 200 
11 46 200 
12 46 200 
13 46 200 
14 46 200 
15 46 200 
16 46 200 
17 46 200 
18 46 200 
19 46 200 
20 46 200 
21 46 200 
22 46 200 
23 46 200 
24 46 200 
25 46 200 
26 46 200 
27 46 200 
28 46 200 
29 46 200 
30 46 200 
31 46 200 
32 46 200 
33 46 200 
34 46 200 
35 46 200 
36 46 200 
37 46 200 
38.0104 46.0126 200.055 
39.0213 46.0252 200.109 
40.0323 46.0372 200.162 
41.0433 46.0486 200.211 
42.0544 46.0596 200.259 
43.0657 46.0703 200.306 
44.0773 46.0808 200.352 
45.0893 46.0913 200.397 
46.1017 46.1017 200.442 
47.1146 46.1122 200.488 
48.1281 46.1228 200.534 
49.1421 46.1334 200.58 
50.1566 46.144 200.626 
51.1716 46.1548 200.673 
52.1871 46.1655 200.72 
53.2031 46.1762 200.766 
54.2193 46.1868 200.812 
55.2358 46.1972 200.857 
56.2525 46.2074 200.902 
57.269 46.2171 200.944 
58.2851 46.2261 200.983 
59.3005 46.2343 201.019 
60.3148 46.2414 201.049 
61.3272 46.2467 201.073 
62.3366 46.2498 201.086 
63.3421 46.2498 201.086 
64.3422 46.2459 201.069 
65.3348 46.2369 201.03 
66.3181 46.2217 200.964 
67.2912 46.1999 200.869 
68.2545 46.1722 200.749 
69.2103 46.1402 200.61 
70.161 46.1058 200.46 
71.1084 46.0702 200.305 
72.0542 46.0346 200.151 
73 46 200 
74 46 200 
75 46 200 
76 46 200 
77 46 200 
78 46 200 
79 46 200 
80 46 200 
81 46 200 
82 46 200 
83 46 200 
84 46 200 
85 46 200 
86 46 200 
87 46 200 
88 46 200 
89 46 200 
90 46 200 
91 46 200 
92 46 200 
93 46 200 
94 46 200 
95 46 200 
96 46 200 
97 46 200 
98 46 200 
99 46 200 
0 47 200 
1 47 200 
2 47 200 
3 47 200 
4 47 200 
5 47 200 
6 47 200 
7 47 200 
8 47 200 
9 47 200 
10 47 200 
11 47 200 
12 47 200 
13 47 200 
14 47 200 
15 47 200 
16 47 200 
17 47 200 
18 47 200 
19 47 200 
20 47 200 
21 47 200 
22 47 200 
23 47 200 
24 47 200 
25 47 200 
26 47 200 
27 47 200 
28 47 200 
29 47 200 
30 47 200 
31 47 200 
32 47 200 
33 47 200 
34 47 200 
35 47 200 
36 47 200 
37 47 200 
38.013 47.0161 200.069 
39.0261 47.0315 200.134 
40.0389 47.0457 200.195 
41.0512 47.0587 200.25 
42.0633 47.0709 200.302 
43.0757 47.0827 200.352 
44.0885 47.0945 200.402 
45.1015 47.106 200.451 
46.1149 47.1174 200.5 
47.129 47.129 200.549 
48.1439 47.1409 200.599 
49.1592 47.1527 200.65 
50.175 47.1645 200.7 
51.1916 47.1765 200.751 
52.209 47.1889 200.804 
53.2267 47.2011 200.856 
54.2449 47.2131 200.907 
55.2636 47.2252 200.958 
56.2828 47.2374 201.01 
57.3021 47.2491 201.06 
58.321 47.2602 201.107 
59.3398 47.2707 201.152 
60.358 47.2804 201.193 
61.3744 47.2885 201.227 
62.388 47.2941 201.252 
63.3979 47.2968 201.263 
64.4021 47.2953 201.256 
65.3973 47.2873 201.223 
66.3805 47.271 201.153 
67.3491 47.2449 201.042 
68.3035 47.2098 200.893 
69.249 47.1696 200.722 
70.1895 47.1273 200.542 
71.1261 47.0835 200.355 
72.0618 47.0403 200.172 
73 47 200 
74 47 200 
75 47 200 
76 47 200 
77 47 200 
78 47 200 
79 47 200 
80 47 200 
81 47 200 
82 47 200 
83 47 200 
84 47 200 
85 47 200 
86 47 200 
87 47 200 
88 47 200 
89 47 200 
90 47 200 
91 47 200 
92 47 200 
93 47 200 
94 47 200 
95 47 200 
96 47 200 
97 47 200 
98 47 200 
99 47 200 
0 48 200 
1 48 200 
2 48 200 
3 48 200 
4 48 200 
5 48 200 
6 48 200 
7 48 200 
8 48 200 
9 48 200 
10 48 200 
11 48 200 
12 48 200 
13 48 200 
14 48 200 
15 48 200 
16 48 200 
17 48 200 
18 48 200 
19 48 200 
20 48 200 
21 48 200 
22 48 200 
23 48 200 
24 48 200 
25 48 200 
26 48 200 
27 48 200 
28 48 200 
29 48 200 
30 48 200 
31 48 200 
32 48 200 
33 48 200 
34 48 200 
35 48 200 
36 48 200 
37 48 200 
38.0165 48.0208 200.087 
39.032 48.0394 200.164 
40.0468 48.0562 200.234 
41.0602 48.0705 200.294 
42.0728 48.0832 200.347 
43.086 48.096 200.4 
44.1002 48.1093 200.455 
45.1141 48.1217 200.507 
46.1282 48.1338 200.557 
47.1434 48.1465 200.61 
48.16 48.16 200.667 
49.1766 48.173 200.721 
50.1935 48.1858 200.774 
51.2116 48.1992 200.83 
52.2313 48.2135 200.89 
53.2509 48.2273 200.947 
54.2707 48.2406 201.003 
55.2917 48.2546 201.061 
56.3141 48.2693 201.122 
57.3362 48.2831 201.18 
58.358 48.2963 201.235 
59.3806 48.3096 201.29 
60.4037 48.323 201.346 
61.425 48.3345 201.394 
62.4438 48.3436 201.432 
63.4599 48.3504 201.46 
64.4711 48.3533 201.472 
65.472 48.3485 201.452 
66.4571 48.3324 201.385 
67.4206 48.3014 201.256 
68.3603 48.2543 201.06 
69.2917 48.2029 200.845 
70.2209 48.1515 200.631 
71.1438 48.0972 200.405 
72.0658 48.0439 200.183 
73 48 200 
74 48 200 
75 48 200 
76 48 200 
77 48 200 
78 48 200 
79 48 200 
80 48 200 
81 48 200 
82 48 200 
83 48 200 
84 48 200 
85 48 200 
86 48 200 
87 48 200 
88 48 200 
89 48 200 
90 48 200 
91 48 200 
92 48 200 
93 48 200 
94 48 200 
95 48 200 
96 48 200 
97 48 200 
98 48 200 
99 48 200 
0 49 200 
1 49 200 
2 49 200 
3 49 200 
4 49 200 
5 49 200 
6 49 200 
7 49 200 
8 49 200 
9 49 200 
10 49 200 
11 49 200 
12 49 200 
13 49 200 
14 49 200 
15 49 200 
16 49 200 
17 49 200 
18 49 200 
19 49 200 
20 49 200 
21 49 200 
22 49 200 
23 49 200 
24 49 200 
25 49 200 
26 49 200 
27 49 200 
28 49 200 
29 49 200 
30 49 200 
31 49 200 
32 49 200 
33 49 200 
34 49 200 
35 49 200 
36 49 200 
37 49 200 
38.0216 49.0279 200.114 
39.0394 49.0496 200.202 
40.0567 49.0695 200.284 
41.0704 49.0841 200.343 
42.0823 49.096 200.392 
43.0958 49.1092 200.446 
44.1125 49.1253 200.511 
45.1272 49.1385 200.565 
46.1409 49.1501 200.613 
47.1569 49.1636 200.668 
48.1767 49.1803 200.736 
49.1944 49.1944 200.794 
50.2113 49.207 200.845 
51.2307 49.2217 200.905 
52.2542 49.2395 200.978 
53.2755 49.2547 201.04 
54.2959 49.2685 201.096 
55.319 49.2842 201.16 
56.3464 49.3031 201.237 
57.3712 49.3191 201.303 
58.3949 49.3336 201.362 
59.4212 49.3498 201.428 
60.4518 49.3689 201.506 
61.4787 49.3845 201.569 
62.5026 49.3972 201.621 
63.5268 49.4097 201.672 
64.5505 49.4215 201.72 
65.562 49.4237 201.729 
66.5542 49.4115 201.679 
67.5146 49.3764 201.536 
68.4235 49.3052 201.246 
69.3346 49.2376 200.97 
70.2566 49.1796 200.733 
71.1603 49.1107 200.452 
72.0557 49.0379 200.155 
73 49 200 
74 49 200 
75 49 200 
76 49 200 
77 49 200 
78 49 200 
79 49 200 
80 49 200 
81 49 200 
82 49 200 
83 49 200 
84 49 200 
85 49 200 
86 49 200 
87 49 200 
88 49 200 
89 49 200 
90 49 200 
91 49 200 
92 49 200 
93 49 200 
94 49 200 
95 49 200 
96 49 200 
97 49 200 
98 49 200 
99 49 200 
0 50 200 
1 50 200 
2 50 200 
3 50 200 
4 50 200 
5 50 200 
6 50 200 
7 50 200 
8 50 200 
9 50 200 
10 50 200 
11 50 200 
12 50 200 
13 50 200 
14 50 200 
15 50 200 
16 50 200 
17 50 200 
18 50 200 
19 50 200 
20 50 200 
21 50 200 
22 50 200 
23 50 200 
24 50 200 
25 50 200 
26 50 200 
27 50 200 
28 50 200 
29 50 200 
30 50 200 
31 50 200 
32 50 200 
33 50 200 
34 50 200 
35 50 200 
36 50 200 
37 50 200 
38.0315 50.0414 200.166 
39.0482 50.0618 200.247 
40.0709 50.0887 200.355 
41.0829 50.1011 200.404 
42.0906 50.1079 200.432 
43.1031 50.1199 200.48 
44.1275 50.1449 200.579 
45.1416 50.1574 200.629 
46.1517 50.1649 200.66 
47.1673 50.178 200.712 
48.1959 50.2041 200.816 
49.2136 50.2179 200.872 
50.2269 50.2269 200.908 
51.2464 50.2415 200.966 
52.2799 50.2692 201.077 
53.3017 50.2846 201.139 
54.3189 50.2953 201.181 
55.3427 50.3116 201.246 
56.3817 50.3408 201.363 
57.4081 50.358 201.432 
58.4296 50.3703 201.481 
59.4583 50.3884 201.554 
60.5041 50.4201 201.68 
61.5359 50.4392 201.757 
62.5617 50.453 201.812 
63.5946 50.4719 201.888 
64.6425 50.5019 202.008 
65.6711 50.5163 202.065 
66.6822 50.5168 202.067 
67.6581 50.4911 201.965 
68.482 50.3544 201.418 
69.3643 50.264 201.056 
70.3083 50.2202 200.881 
71.1827 50.1286 200.515 
71.9948 49.9964 199.985 
73 50 200 
74 50 200 
75 50 200 
76 50 200 
77 50 200 
78 50 200 
79 50 200 
80 50 200 
81 50 200 
82 50 200 
83 50 200 
84 50 200 
85 50 200 
86 50 200 
87 50 200 
88 50 200 
89 50 200 
90 50 200 
91 50 200 
92 50 200 
93 50 200 
94 50 200 
95 50 200 
96 50 200 
97 50 200 
98 50 200 
99 50 200 
0 51 100 
1 51 100 
2 51 100 
3 51 100 
4 51 100 
5 51 100 
6 51 100 
7 51 100 
8 51 100 
9 51 100 
10 51 100 
11 51 100 
12 51 100 
13 51 100 
14 51 100 
15 51 100 
16 51 100 
17 51 100 
18 51 100 
19 51 100 
20 51 100 
21 51 100 
22 51 100 
23 51 100 
24 51 100 
25 51 100 
26 51 100 
27 51 100 
28 51 100 
29 51 100 
30 51 100 
31 51 100 
32 51 100 
33 51 100 
34 51 100 
35 51 100 
36 51 100 
37 51 100 
37.9321 50.9089 99.8214 
38.8902 50.8565 99.7186 
39.8375 50.7928 99.5938 
40.8038 50.7559 99.5214 
41.7774 50.7297 99.47 
42.7423 50.6944 99.4007 
43.6861 50.6361 99.2865 
44.6478 50.6008 99.2173 
45.6167 50.575 99.1666 
46.5758 50.5397 99.0975 
47.5123 50.4819 98.984 
48.4685 50.4468 98.9153 
49.4326 50.4212 98.8652 
50.3867 50.3867 98.7974 
51.3169 50.33 98.6864 
52.2686 50.2962 98.62 
53.2292 50.272 98.5726 
54.1796 50.2392 98.5083 
55.1051 50.185 98.4019 
56.0538 50.1534 98.3401 
57.0125 50.1316 98.2973 
57.9602 50.1012 98.2377 
58.88 50.048 98.1334 
59.8271 50.0194 98.0772 
60.788 50.003 98.0452 
61.7406 49.9805 98.0009 
62.6728 49.9424 97.9262 
63.6429 49.9352 97.9121 
64.6477 49.955 97.951 
65.7171 50.0234 98.0852 
67.045 50.2837 98.5956 
68.2752 50.4643 98.9495 
69.402 50.5643 99.1457 
70.6426 50.7433 99.4967 
71.9827 50.9878 99.976 
73 51 100 
74 51 100 
75 51 100 
76 51 100 
77 51 100 
78 51 100 
79 51 100 
80 51 100 
81 51 100 
82 51 100 
83 51 100 
84 51 100 
85 51 100 
86 51 100 
87 51 100 
88 51 100 
89 51 100 
90 51 100 
91 51 100 
92 51 100 
93 51 100 
94 51 100 
95 51 100 
96 51 100 
97 51 100 
98 51 100 
99 51 100 
0 52 100 
1 52 100 
2 52 100 
3 52 100 
4 52 100 
5 52 100 
6 52 100 
7 52 100 
8 52 100 
9 52 100 
10 52 100 
11 52 100 
12 52 100 
13 52 100 
14 52 100 
15 52 100 
16 52 100 
17 52 100 
18 52 100 
19 52 100 
20 52 100 
21 52 100 
22 52 100 
23 52 100 
24 52 100 
25 52 100 
26 52 100 
27 52 100 
28 52 100 
29 52 100 
30 52 100 
31 52 100 
32 52 100 
33 52 100 
34 52 100 
35 52 100 
36 52 100 
37 52 100 
37.9507 51.9325 99.8703 
38.9076 51.8768 99.7631 
39.8652 51.8247 99.6629 
40.829 51.7831 99.5829 
41.7957 51.7471 99.5137 
42.7594 51.709 99.4404 
43.7173 51.6659 99.3575 
44.6787 51.6287 99.2859 
45.6417 51.5949 99.221 
46.6006 51.5581 99.1503 
47.5533 51.5161 99.0693 
48.5098 51.4798 98.9996 
49.4684 51.4471 98.9368 
50.423 51.4117 98.8687 
51.3714 51.3714 98.7912 
52.3245 51.3372 98.7254 
53.2803 51.3069 98.6672 
54.2325 51.2744 98.6045 
55.1787 51.2374 98.5334 
56.1307 51.207 98.4749 
57.0864 51.1809 98.4249 
58.0392 51.1532 98.3716 
58.9868 51.1219 98.3114 
59.9434 51.0993 98.2678 
60.9083 51.0844 98.2393 
61.8766 51.0727 98.2168 
62.8497 51.0654 98.2026 
63.848 51.0784 98.2277 
64.8832 51.1201 98.3078 
65.9758 51.2051 98.4714 
67.1578 51.3559 98.7614 
68.3373 51.5006 99.0396 
69.4986 51.6276 99.2838 
70.6883 51.7717 99.5609 
71.8873 51.9186 99.8434 
73 52 100 
74 52 100 
75 52 100 
76 52 100 
77 52 100 
78 52 100 
79 52 100 
80 52 100 
81 52 100 
82 52 100 
83 52 100 
84 52 100 
85 52 100 
86 52 100 
87 52 100 
88 52 100 
89 52 100 
90 52 100 
91 52 100 
92 52 100 
93 52 100 
94 52 100 
95 52 100 
96 52 100 
97 52 100 
98 52 100 
99 52 100 
0 53 100 
1 53 100 
2 53 100 
3 53 100 
4 53 100 
5 53 100 
6 53 100 
7 53 100 
8 53 100 
9 53 100 
10 53 100 
11 53 100 
12 53 100 
13 53 100 
14 53 100 
15 53 100 
16 53 100 
17 53 100 
18 53 100 
19 53 100 
20 53 100 
21 53 100 
22 53 100 
23 53 100 
24 53 100 
25 53 100 
26 53 100 
27 53 100 
28 53 100 
29 53 100 
30 53 100 
31 53 100 
32 53 100 
33 53 100 
34 53 100 
35 53 100 
36 53 100 
37 53 100 
37.9606 52.9451 99.8963 
38.9223 52.8944 99.8007 
39.8849 52.8475 99.7123 
40.8499 52.806 99.6339 
41.816 52.7678 99.5618 
42.7809 52.7299 99.4904 
43.7438 52.6914 99.4177 
44.7068 52.6547 99.3485 
45.6697 52.6194 99.2819 
46.6306 52.5835 99.2141 
47.5892 52.5464 99.1442 
48.5482 52.5113 99.0779 
49.5072 52.4777 99.0145 
50.4647 52.4437 98.9504 
51.4203 52.4092 98.8852 
52.3769 52.3769 98.8242 
53.3342 52.3465 98.7671 
54.2906 52.3164 98.7103 
55.2459 52.2863 98.6535 
56.2033 52.2592 98.6023 
57.1628 52.235 98.5566 
58.123 52.2122 98.5135 
59.0842 52.191 98.4736 
60.0511 52.1755 98.4444 
61.0254 52.1669 98.428 
62.0076 52.1651 98.4248 
63.0017 52.1733 98.4401 
64.0172 52.1986 98.4879 
65.0631 52.2476 98.5804 
66.1487 52.3266 98.7294 
67.2774 52.4368 98.9374 
68.422 52.5561 99.1624 
69.5711 52.6752 99.3872 
70.729 52.7977 99.6184 
71.8819 52.9131 99.836 
73 53 100 
74 53 100 
75 53 100 
76 53 100 
77 53 100 
78 53 100 
79 53 100 
80 53 100 
81 53 100 
82 53 100 
83 53 100 
84 53 100 
85 53 100 
86 53 100 
87 53 100 
88 53 100 
89 53 100 
90 53 100 
91 53 100 
92 53 100 
93 53 100 
94 53 100 
95 53 100 
96 53 100 
97 53 100 
98 53 100 
99 53 100 
0 54 100 
1 54 100 
2 54 100 
3 54 100 
4 54 100 
5 54 100 
6 54 100 
7 54 100 
8 54 100 
9 54 100 
10 54 100 
11 54 100 
12 54 100 
13 54 100 
14 54 100 
15 54 100 
16 54 100 
17 54 100 
18 54 100 
19 54 100 
20 54 100 
21 54 100 
22 54 100 
23 54 100 
24 54 100 
25 54 100 
26 54 100 
27 54 100 
28 54 100 
29 54 100 
30 54 100 
31 54 100 
32 54 100 
33 54 100 
34 54 100 
35 54 100 
36 54 100 
37 54 100 
37.9672 53.9534 99.9138 
38.934 53.9086 99.8307 
39.9008 53.8661 99.7521 
40.8684 53.8266 99.679 
41.8361 53.7893 99.6097 
42.8031 53.7527 99.5421 
43.7689 53.7164 99.4749 
44.7341 53.681 99.4092 
45.6986 53.6461 99.3447 
46.6618 53.6114 99.2804 
47.6238 53.5768 99.2163 
48.5855 53.5432 99.154 
49.5468 53.5105 99.0936 
50.5074 53.4784 99.0341 
51.4674 53.4469 98.9758 
52.4277 53.4169 98.9202 
53.3884 53.3884 98.8674 
54.3493 53.3611 98.8168 
55.3105 53.3351 98.7688 
56.2733 53.3116 98.7252 
57.2382 53.2908 98.6866 
58.2053 53.2727 98.6531 
59.1756 53.258 98.626 
60.1514 53.2488 98.6088 
61.1346 53.2463 98.6042 
62.1273 53.252 98.6147 
63.133 53.2684 98.6453 
64.1572 53.2998 98.7033 
65.2053 53.3498 98.7959 
66.2814 53.4208 98.9274 
67.3848 53.5115 99.0953 
68.506 53.6134 99.2841 
69.6384 53.721 99.4834 
70.7787 53.8317 99.6883 
71.9145 53.9359 99.8813 
73 54 100 
74 54 100 
75 54 100 
76 54 100 
77 54 100 
78 54 100 
79 54 100 
80 54 100 
81 54 100 
82 54 100 
83 54 100 
84 54 100 
85 54 100 
86 54 100 
87 54 100 
88 54 100 
89 54 100 
90 54 100 
91 54 100 
92 54 100 
93 54 100 
94 54 100 
95 54 100 
96 54 100 
97 54 100 
98 54 100 
99 54 100 
0 55 100 
1 55 100 
2 55 100 
3 55 100 
4 55 100 
5 55 100 
6 55 100 
7 55 100 
8 55 100 
9 55 100 
10 55 100 
11 55 100 
12 55 100 
13 55 100 
14 55 100 
15 55 100 
16 55 100 
17 55 100 
18 55 100 
19 55 100 
20 55 100 
21 55 100 
22 55 100 
23 55 100 
24 55 100 
25 55 100 
26 55 100 
27 55 100 
28 55 100 
29 55 100 
30 55 100 
31 55 100 
32 55 100 
33 55 100 
34 55 100 
35 55 100 
36 55 100 
37 55 100 
37.9724 54.9601 99.9275 
38.9438 54.9208 99.856 
39.9147 54.8827 99.7867 
40.8854 54.8463 99.7205 
41.8557 54.8111 99.6565 
42.8252 54.7765 99.5936 
43.7937 54.7421 99.531 
44.7611 54.708 99.4691 
45.7276 54.6743 99.4078 
46.6931 54.6409 99.3471 
47.6579 54.608 99.2873 
48.6222 54.5759 99.229 
49.5862 54.5448 99.1724 
50.5499 54.5146 99.1175 
51.5135 54.4854 99.0644 
52.4774 54.4577 99.014 
53.4418 54.4315 98.9664 
54.4069 54.4069 98.9217 
55.3731 54.3843 98.8805 
56.341 54.3641 98.8438 
57.3111 54.3468 98.8123 
58.2843 54.3328 98.787 
59.2615 54.3231 98.7692 
60.2444 54.3187 98.7613 
61.2347 54.3211 98.7656 
62.2346 54.3318 98.785 
63.2468 54.3527 98.8231 
64.2747 54.3863 98.8842 
65.3216 54.4347 98.9721 
66.3893 54.4987 99.0886 
67.4774 54.5773 99.2314 
68.5821 54.6669 99.3944 
69.7012 54.7652 99.5731 
70.8363 54.8732 99.7694 
72 55 100 
73 55 100 
74 55 100 
75 55 100 
76 55 100 
77 55 100 
78 55 100 
79 55 100 
80 55 100 
81 55 100 
82 55 100 
83 55 100 
84 55 100 
85 55 100 
86 55 100 
87 55 100 
88 55 100 
89 55 100 
90 55 100 
91 55 100 
92 55 100 
93 55 100 
94 55 100 
95 55 100 
96 55 100 
97 55 100 
98 55 100 
99 55 100 
0 56 100 
1 56 100 
2 56 100 
3 56 100 
4 56 100 
5 56 100 
6 56 100 
7 56 100 
8 56 100 
9 56 100 
10 56 100 
11 56 100 
12 56 100 
13 56 100 
14 56 100 
15 56 100 
16 56 100 
17 56 100 
18 56 100 
19 56 100 
20 56 100 
21 56 100 
22 56 100 
23 56 100 
24 56 100 
25 56 100 
26 56 100 
27 56 100 
28 56 100 
29 56 100 
30 56 100 
31 56 100 
32 56 100 
33 56 100 
34 56 100 
35 56 100 
36 56 100 
37 56 100 
37.9769 55.966 99.9392 
38.9526 55.9319 99.8784 
39.9274 55.8983 99.8184 
40.9016 55.8656 99.76 
41.8751 55.8334 99.7025 
42.8474 55.8012 99.645 
43.8183 55.7687 99.587 
44.7879 55.7361 99.5287 
45.7565 55.7036 99.4707 
46.7243 55.6715 99.4134 
47.6915 55.64 99.3572 
48.6583 55.6095 99.3027 
49.625 55.58 99.2501 
50.5917 55.5517 99.1995 
51.5586 55.5247 99.1512 
52.526 55.4991 99.1056 
53.494 55.4753 99.063 
54.4631 55.4533 99.0238 
55.4335 55.4335 98.9884 
56.4059 55.4163 98.9577 
57.3809 55.4022 98.9326 
58.3592 55.3918 98.9139 
59.3419 55.3857 98.9031 
60.3302 55.3851 98.9019 
61.3257 55.391 98.9125 
62.3303 55.4047 98.937 
63.3459 55.4277 98.978 
64.3749 55.4614 99.0382 
65.419 55.5071 99.1197 
66.4795 55.5649 99.2231 
67.5559 55.6343 99.347 
68.6469 55.7135 99.4883 
69.7513 55.801 99.6447 
70.8689 55.8966 99.8153 
72 56 100 
73 56 100 
74 56 100 
75 56 100 
76 56 100 
77 56 100 
78 56 100 
79 56 100 
80 56 100 
81 56 100 
82 56 100 
83 56 100 
84 56 100 
85 56 100 
86 56 100 
87 56 100 
88 56 100 
89 56 100 
90 56 100 
91 56 100 
92 56 100 
93 56 100 
94 56 100 
95 56 100 
96 56 100 
97 56 100 
98 56 100 
99 56 100 
0 57 100 
1 57 100 
2 57 100 
3 57 100 
4 57 100 
5 57 100 
6 57 100 
7 57 100 
8 57 100 
9 57 100 
10 57 100 
11 57 100 
12 57 100 
13 57 100 
14 57 100 
15 57 100 
16 57 100 
17 57 100 
18 57 100 
19 57 100 
20 57 100 
21 57 100 
22 57 100 
23 57 100 
24 57 100 
25 57 100 
26 57 100 
27 57 100 
28 57 100 
29 57 100 
30 57 100 
31 57 100 
32 57 100 
33 57 100 
34 57 100 
35 57 100 
36 57 100 
37 57 100 
37.981 56.9714 99.9499 
38.9607 56.9426 99.8993 
39.9395 56.9138 99.8487 
40.9175 56.8853 99.7988 
41.8945 56.8568 99.7487 
42.8698 56.8275 99.6973 
43.8432 56.7968 99.6435 
44.8148 56.7654 99.5884 
45.7853 56.734 99.5333 
46.7551 56.703 99.4789 
47.7245 56.6728 99.426 
48.6938 56.6438 99.375 
49.6631 56.6159 99.3262 
50.6327 56.5894 99.2797 
51.6026 56.5644 99.2358 
52.5732 56.541 99.1948 
53.5447 56.5194 99.1569 
54.5174 56.4999 99.1226 
55.4917 56.4826 99.0923 
56.4681 56.4681 99.0668 
57.4472 56.4567 99.0469 
58.4298 56.4491 99.0335 
59.4167 56.4459 99.0278 
60.4091 56.4479 99.0314 
61.4084 56.4561 99.0457 
62.4158 56.4714 99.0727 
63.4329 56.4949 99.1139 
64.4613 56.5276 99.1712 
65.5021 56.57 99.2455 
66.5559 56.6222 99.3372 
67.6226 56.6837 99.4451 
68.7015 56.7534 99.5674 
69.7915 56.8302 99.7021 
70.8916 56.913 99.8473 
72 57 100 
73 57 100 
74 57 100 
75 57 100 
76 57 100 
77 57 100 
78 57 100 
79 57 100 
80 57 100 
81 57 100 
82 57 100 
83 57 100 
84 57 100 
85 57 100 
86 57 100 
87 57 100 
88 57 100 
89 57 100 
90 57 100 
91 57 100 
92 57 100 
93 57 100 
94 57 100 
95 57 100 
96 57 100 
97 57 100 
98 57 100 
99 57 100 
0 58 100 
1 58 100 
2 58 100 
3 58 100 
4 58 100 
5 58 100 
6 58 100 
7 58 100 
8 58 100 
9 58 100 
10 58 100 
11 58 100 
12 58 100 
13 58 100 
14 58 100 
15 58 100 
16 58 100 
17 58 100 
18 58 100 
19 58 100 
20 58 100 
21 58 100 
22 58 100 
23 58 100 
24 58 100 
25 58 100 
26 58 100 
27 58 100 
28 58 100 
29 58 100 
30 58 100 
31 58 100 
32 58 100 
33 58 100 
34 58 100 
35 58 100 
36 58 100 
37 58 100 
37.9849 57.977 99.9603 
38.9687 57.9534 99.9196 
39.9515 57.9296 99.8786 
40.9335 57.906 99.8379 
41.9145 57.8819 99.7965 
42.8934 57.8562 99.7521 
43.8687 57.8269 99.7016 
44.8418 57.7962 99.6485 
45.8139 57.7653 99.5954 
46.7854 57.7352 99.5434 
47.7568 57.7062 99.4934 
48.7284 57.6785 99.4457 
49.7002 57.6523 99.4005 
50.6725 57.6276 99.3579 
51.6454 57.6045 99.3182 
52.6191 57.5832 99.2814 
53.5938 57.5637 99.2478 
54.5698 57.5464 99.2179 
55.5475 57.5314 99.192 
56.5274 57.5191 99.1709 
57.51 57.51 99.1552 
58.4961 57.5046 99.1459 
59.4863 57.5035 99.1439 
60.4818 57.5073 99.1505 
61.4835 57.5168 99.1669 
62.4925 57.5327 99.1944 
63.5099 57.5558 99.2342 
64.5368 57.5866 99.2873 
65.5739 57.6255 99.3543 
66.6216 57.6724 99.4352 
67.6797 57.7268 99.529 
68.7477 57.7879 99.6343 
69.8246 57.8547 99.7495 
70.9094 57.9259 99.8723 
72 58 100 
73 58 100 
74 58 100 
75 58 100 
76 58 100 
77 58 100 
78 58 100 
79 58 100 
80 58 100 
81 58 100 
82 58 100 
83 58 100 
84 58 100 
85 58 100 
86 58 100 
87 58 100 
88 58 100 
89 58 100 
90 58 100 
91 58 100 
92 58 100 
93 58 100 
94 58 100 
95 58 100 
96 58 100 
97 58 100 
98 58 100 
99 58 100 
0 59 100 
1 59 100 
2 59 100 
3 59 100 
4 59 100 
5 59 100 
6 59 100 
7 59 100 
8 59 100 
9 59 100 
10 59 100 
11 59 100 
12 59 100 
13 59 100 
14 59 100 
15 59 100 
16 59 100 
17 59 100 
18 59 100 
19 59 100 
20 59 100 
21 59 100 
22 59 100 
23 59 100 
24 59 100 
25 59 100 
26 59 100 
27 59 100 
28 59 100 
29 59 100 
30 59 100 
31 59 100 
32 59 100 
33 59 100 
34 59 100 
35 59 100 
36 59 100 
37 59 100 
37.9889 58.9828 99.9709 
38.9765 58.9645 99.9398 
39.9634 58.946 99.9084 
40.9499 58.9279 99.8778 
41.9358 58.9099 99.8472 
42.9196 58.8897 99.8131 
43.8955 58.8599 99.7625 
44.8691 58.8283 99.709 
45.842 58.7974 99.6565 
46.815 58.7677 99.6063 
47.7883 58.7397 99.5589 
48.762 58.7134 99.5143 
49.7363 58.6888 99.4726 
50.7113 58.666 99.4338 
51.687 58.6448 99.398 
52.6636 58.6255 99.3652 
53.6412 58.608 99.3356 
54.6203 58.5927 99.3096 
55.601 58.5796 99.2875 
56.5839 58.5693 99.27 
57.5695 58.5621 99.2577 
58.5583 58.5583 99.2514 
59.5512 58.5587 99.252 
60.5488 58.5636 99.2603 
61.552 58.5737 99.2774 
62.5616 58.5895 99.3042 
63.5786 58.6115 99.3415 
64.6035 58.6401 99.3899 
65.6368 58.6753 99.4497 
66.6788 58.7171 99.5205 
67.7292 58.765 99.6017 
68.7875 58.8183 99.692 
69.8528 58.876 99.7898 
70.9241 58.937 99.8932 
72 59 100 
73 59 100 
74 59 100 
75 59 100 
76 59 100 
77 59 100 
78 59 100 
79 59 100 
80 59 100 
81 59 100 
82 59 100 
83 59 100 
84 59 100 
85 59 100 
86 59 100 
87 59 100 
88 59 100 
89 59 100 
90 59 100 
91 59 100 
92 59 100 
93 59 100 
94 59 100 
95 59 100 
96 59 100 
97 59 100 
98 59 100 
99 59 100 
0 60 100 
1 60 100 
2 60 100 
3 60 100 
4 60 100 
5 60 100 
6 60 100 
7 60 100 
8 60 100 
9 60 100 
10 60 100 
11 60 100 
12 60 100 
13 60 100 
14 60 100 
15 60 100 
16 60 100 
17 60 100 
18 60 100 
19 60 100 
20 60 100 
21 60 100 
22 60 100 
23 60 100 
24 60 100 
25 60 100 
26 60 100 
27 60 100 
28 60 100 
29 60 100 
30 60 100 
31 60 100 
32 60 100 
33 60 100 
34 60 100 
35 60 100 
36 60 100 
37 60 100 
37.9935 59.9897 99.9828 
38.9843 59.9759 99.9599 
39.975 59.9625 99.9376 
40.9663 59.9506 99.9177 
41.9586 59.9409 99.9015 
42.953 59.9344 99.8907 
43.9237 59.8959 99.8266 
44.896 59.8613 99.7688 
45.8693 59.8295 99.7158 
46.8435 59.8002 99.6669 
47.8185 59.7731 99.6219 
48.7944 59.7482 99.5804 
49.7711 59.7254 99.5423 
50.7487 59.7044 99.5073 
51.7272 59.6852 99.4753 
52.7066 59.6678 99.4463 
53.687 59.6523 99.4205 
54.6688 59.6387 99.3979 
55.6523 59.6274 99.3791 
56.6378 59.6187 99.3645 
57.6258 59.6129 99.3548 
58.6169 59.6104 99.3506 
59.6116 59.6116 99.3527 
60.6107 59.6171 99.3618 
61.6148 59.6272 99.3787 
62.6245 59.6424 99.404 
63.6405 59.6629 99.4382 
64.6631 59.689 99.4817 
65.6927 59.7207 99.5344 
66.7294 59.7577 99.5961 
67.7728 59.7996 99.6659 
68.8225 59.8457 99.7428 
69.8776 59.8951 99.8251 
70.9371 59.9468 99.9114 
72 60 100 
73 60 100 
74 60 100 
75 60 100 
76 60 100 
77 60 100 
78 60 100 
79 60 100 
80 60 100 
81 60 100 
82 60 100 
83 60 100 
84 60 100 
85 60 100 
86 60 100 
87 60 100 
88 60 100 
89 60 100 
90 60 100 
91 60 100 
92 60 100 
93 60 100 
94 60 100 
95 60 100 
96 60 100 
97 60 100 
98 60 100 
99 60 100 
0 61 100 
1 61 100 
2 61 100 
3 61 100 
4 61 100 
5 61 100 
6 61 100 
7 61 100 
8 61 100 
9 61 100 
10 61 100 
11 61 100 
12 61 100 
13 61 100 
14 61 100 
15 61 100 
16 61 100 
17 61 100 
18 61 100 
19 61 100 
20 61 100 
21 61 100 
22 61 100 
23 61 100 
24 61 100 
25 61 100 
26 61 100 
27 61 100 
28 61 100 
29 61 100 
30 61 100 
31 61 100 
32 61 100 
33 61 100 
34 61 100 
35 61 100 
36 61 100 
37 61 100 
38 61 100 
38.9917 60.987 99.9787 
39.9855 60.9778 99.9636 
40.981 60.9717 99.9536 
41.9789 60.9694 99.9499 
42.9807 60.9726 99.9551 
43.9493 60.9296 99.8847 
44.921 60.8929 99.8244 
45.8949 60.8606 99.7715 
46.8704 60.8318 99.7243 
47.8474 60.806 99.682 
48.8255 60.7828 99.6439 
49.8047 60.7618 99.6095 
50.785 60.7428 99.5784 
51.7662 60.7257 99.5503 
52.7483 60.7103 99.5251 
53.7314 60.6966 99.5027 
54.7158 60.6848 99.4832 
55.7016 60.6749 99.4671 
56.6893 60.6674 99.4548 
57.6793 60.6627 99.4471 
58.6722 60.661 99.4443 
59.6684 60.6628 99.4473 
60.6684 60.6684 99.4564 
61.6729 60.6782 99.4724 
62.6822 60.6923 99.4956 
63.6969 60.7111 99.5264 
64.7172 60.7346 99.565 
65.7433 60.7628 99.6111 
66.7751 60.7953 99.6644 
67.8124 60.8317 99.7241 
68.8544 60.8713 99.789 
69.9003 60.9132 99.8576 
70.9491 60.9563 99.9284 
72 61 100 
73 61 100 
74 61 100 
75 61 100 
76 61 100 
77 61 100 
78 61 100 
79 61 100 
80 61 100 
81 61 100 
82 61 100 
83 61 100 
84 61 100 
85 61 100 
86 61 100 
87 61 100 
88 61 100 
89 61 100 
90 61 100 
91 61 100 
92 61 100 
93 61 100 
94 61 100 
95 61 100 
96 61 100 
97 61 100 
98 61 100 
99 61 100 
0 62 100 
1 62 100 
2 62 100 
3 62 100 
4 62 100 
5 62 100 
6 62 100 
7 62 100 
8 62 100 
9 62 100 
10 62 100 
11 62 100 
12 62 100 
13 62 100 
14 62 100 
15 62 100 
16 62 100 
17 62 100 
18 62 100 
19 62 100 
20 62 100 
21 62 100 
22 62 100 
23 62 100 
24 62 100 
25 62 100 
26 62 100 
27 62 100 
28 62 100 
29 62 100 
30 62 100 
31 62 100 
32 62 100 
33 62 100 
34 62 100 
35 62 100 
36 62 100 
37 62 100 
38 62 100 
38.9962 61.9939 99.9902 
39.9935 61.9899 99.9838 
40.9928 61.9892 99.9825 
41.9951 61.9928 99.9884 
43.0013 62.0019 100.003 
43.9706 61.9586 99.9332 
44.943 61.9215 99.8734 
45.9181 61.8897 99.822 
46.8954 61.8621 99.7775 
47.8745 61.8379 99.7386 
48.8551 61.8167 99.7043 
49.837 61.7979 99.674 
50.82 61.7812 99.6471 
51.8041 61.7664 99.6232 
52.789 61.7531 99.6018 
53.7747 61.7413 99.5827 
54.7613 61.7309 99.5659 
55.7491 61.7222 99.552 
56.7387 61.7157 99.5415 
57.7304 61.7118 99.5351 
58.7246 61.7106 99.5332 
59.7218 61.7126 99.5364 
60.7225 61.7179 99.5451 
61.727 61.727 99.5596 
62.7357 61.7399 99.5805 
63.749 61.7568 99.6078 
64.767 61.7778 99.6415 
65.7898 61.8026 99.6816 
66.8173 61.8309 99.7273 
67.849 61.8624 99.778 
68.8845 61.8962 99.8326 
69.9225 61.9314 99.8893 
70.9615 61.9664 99.9457 
72 62 100 
73 62 100 
74 62 100 
75 62 100 
76 62 100 
77 62 100 
78 62 100 
79 62 100 
80 62 100 
81 62 100 
82 62 100 
83 62 100 
84 62 100 
85 62 100 
86 62 100 
87 62 100 
88 62 100 
89 62 100 
90 62 100 
91 62 100 
92 62 100 
93 62 100 
94 62 100 
95 62 100 
96 62 100 
97 62 100 
98 62 100 
99 62 100 
0 63 100 
1 63 100 
2 63 100 
3 63 100 
4 63 100 
5 63 100 
6 63 100 
7 63 100 
8 63 100 
9 63 100 
10 63 100 
11 63 100 
12 63 100 
13 63 100 
14 63 100 
15 63 100 
16 63 100 
17 63 100 
18 63 100 
19 63 100 
20 63 100 
21 63 100 
22 63 100 
23 63 100 
24 63 100 
25 63 100 
26 63 100 
27 63 100 
28 63 100 
29 63 100 
30 63 100 
31 63 100 
32 63 100 
33 63 100 
34 63 100 
35 63 100 
36 63 100 
37 63 100 
38 63 100 
38.999 62.9984 99.9975 
39.9991 62.9986 99.9978 
41.0014 63.0022 100.004 
42.0074 63.0111 100.018 
43.0188 63.0275 100.044 
43.9878 62.9826 99.9723 
44.9615 62.9461 99.9144 
45.9385 62.9158 99.8664 
46.9181 62.8902 99.8258 
47.8997 62.8684 99.7911 
48.8831 62.8497 99.7614 
49.8679 62.8335 99.7357 
50.8539 62.8195 99.7135 
51.841 62.8073 99.6942 
52.8288 62.7965 99.6769 
53.817 62.7864 99.661 
54.8056 62.7773 99.6465 
55.7951 62.7695 99.6342 
56.7862 62.7637 99.6249 
57.7792 62.7602 99.6193 
58.7745 62.7592 99.6178 
59.7725 62.7611 99.6208 
60.7734 62.766 99.6285 
61.7777 62.7741 99.6414 
62.7856 62.7856 99.6597 
63.7975 62.8006 99.6835 
64.8133 62.8191 99.7128 
65.8332 62.8408 99.7473 
66.8568 62.8653 99.7862 
67.8838 62.8924 99.8292 
68.9139 62.9214 99.8753 
69.9457 62.9511 99.9224 
70.9763 62.979 99.9667 
72 63 100 
73 63 100 
74 63 100 
75 63 100 
76 63 100 
77 63 100 
78 63 100 
79 63 100 
80 63 100 
81 63 100 
82 63 100 
83 63 100 
84 63 100 
85 63 100 
